//X Y Z Scalar_field Scalar_field_#2 Scalar_field_#3
11.688300 -1.358200 2247.023682 2615.0000 621.0000 1425.0000
11.667600 -1.363000 2247.024902 2615.0000 622.0000 1411.0000
11.659900 -1.369000 2247.025146 2615.0000 623.0000 1515.0000
11.640800 -1.373800 2247.026367 2615.0000 624.0000 1505.0000
11.629300 -1.380100 2247.026855 2615.0000 625.0000 1540.0000
11.621000 -1.386600 2247.027100 2615.0000 626.0000 1486.0000
11.608700 -1.392600 2247.027588 2615.0000 627.0000 1501.0000
11.594800 -1.398100 2247.028320 2615.0000 628.0000 1568.0000
11.588200 -1.404200 2247.028564 2615.0000 629.0000 1532.0000
11.578600 -1.409900 2247.028809 2615.0000 630.0000 1441.0000
11.573700 -1.417200 2247.029053 2615.0000 631.0000 1487.0000
11.569400 -1.424100 2247.029053 2615.0000 632.0000 1542.0000
11.562200 -1.430300 2247.029297 2615.0000 633.0000 1547.0000
11.553700 -1.436400 2247.029541 2615.0000 634.0000 1469.0000
11.553700 -1.443200 2247.029297 2615.0000 635.0000 1581.0000
11.553300 -1.450300 2247.029297 2615.0000 636.0000 1641.0000
11.554000 -1.458200 2247.028809 2615.0000 637.0000 1489.0000
11.549200 -1.464600 2247.029053 2615.0000 638.0000 1622.0000
11.546200 -1.471500 2247.029053 2615.0000 639.0000 1603.0000
11.542300 -1.478400 2247.029053 2615.0000 640.0000 1575.0000
11.543900 -1.485200 2247.028809 2615.0000 641.0000 1534.0000
11.542800 -1.492100 2247.028564 2615.0000 642.0000 1554.0000
11.536600 -1.499100 2247.028809 2615.0000 643.0000 1562.0000
11.536800 -1.506000 2247.028320 2615.0000 644.0000 1588.0000
11.534100 -1.513300 2247.028320 2615.0000 645.0000 1526.0000
11.533400 -1.520800 2247.028320 2615.0000 646.0000 1522.0000
11.535500 -1.527800 2247.027832 2615.0000 647.0000 1559.0000
11.535000 -1.534900 2247.027588 2615.0000 648.0000 1580.0000
11.536000 -1.542500 2247.027344 2615.0000 649.0000 1577.0000
11.537800 -1.550100 2247.027100 2615.0000 650.0000 1605.0000
11.534600 -1.557300 2247.026855 2615.0000 651.0000 1543.0000
11.536300 -1.564300 2247.026611 2615.0000 652.0000 1508.0000
11.537200 -1.571700 2247.026367 2615.0000 653.0000 1519.0000
11.527900 -1.577500 2247.026611 2615.0000 654.0000 1398.0000
11.540800 -1.586900 2247.025635 2615.0000 655.0000 1440.0000
11.548900 -1.595000 2247.024902 2615.0000 656.0000 1584.0000
11.545900 -1.602100 2247.024902 2615.0000 657.0000 1441.0000
11.549800 -1.609800 2247.024414 2615.0000 658.0000 1460.0000
11.550000 -1.616800 2247.024170 2615.0000 659.0000 1466.0000
11.556100 -1.624900 2247.023438 2615.0000 660.0000 1491.0000
11.551100 -1.631700 2247.023438 2615.0000 661.0000 1432.0000
11.560600 -1.640400 2247.022705 2615.0000 662.0000 1382.0000
11.587000 -1.651300 2247.020752 2615.0000 663.0000 1519.0000
11.611100 -1.662200 2247.018799 2615.0000 664.0000 1485.0000
11.620800 -1.670700 2247.018066 2615.0000 665.0000 1404.0000
11.654000 -1.683100 2247.015625 2615.0000 666.0000 1450.0000
11.731000 -1.355500 2247.014160 2616.0000 620.0000 1331.0000
11.685800 -1.357800 2247.016846 2616.0000 621.0000 1452.0000
11.670000 -1.363100 2247.017578 2616.0000 622.0000 1415.0000
11.662800 -1.369200 2247.017822 2616.0000 623.0000 1563.0000
11.641400 -1.373800 2247.019043 2616.0000 624.0000 1527.0000
11.629200 -1.379900 2247.019531 2616.0000 625.0000 1562.0000
11.617900 -1.386100 2247.020020 2616.0000 626.0000 1378.0000
11.607400 -1.392300 2247.020508 2616.0000 627.0000 1496.0000
11.596800 -1.398200 2247.020996 2616.0000 628.0000 1568.0000
11.586900 -1.403900 2247.021484 2616.0000 629.0000 1502.0000
11.575300 -1.409300 2247.021973 2616.0000 630.0000 1435.0000
11.573000 -1.417000 2247.021973 2616.0000 631.0000 1470.0000
11.568100 -1.423800 2247.021973 2616.0000 632.0000 1508.0000
11.560900 -1.430000 2247.022217 2616.0000 633.0000 1557.0000
11.553700 -1.436300 2247.022461 2616.0000 634.0000 1471.0000
11.551900 -1.442800 2247.022461 2616.0000 635.0000 1591.0000
11.553000 -1.450100 2247.022217 2616.0000 636.0000 1644.0000
11.553200 -1.458000 2247.021729 2616.0000 637.0000 1463.0000
11.549100 -1.464400 2247.021729 2616.0000 638.0000 1630.0000
11.547000 -1.471400 2247.021729 2616.0000 639.0000 1636.0000
11.543000 -1.478400 2247.021729 2616.0000 640.0000 1611.0000
11.542400 -1.484900 2247.021484 2616.0000 641.0000 1565.0000
11.539100 -1.491400 2247.021484 2616.0000 642.0000 1490.0000
11.536600 -1.498900 2247.021484 2616.0000 643.0000 1563.0000
11.533300 -1.505400 2247.021484 2616.0000 644.0000 1516.0000
11.536000 -1.513400 2247.020996 2616.0000 645.0000 1521.0000
11.535600 -1.520900 2247.020996 2616.0000 646.0000 1557.0000
11.537200 -1.527800 2247.020508 2616.0000 647.0000 1628.0000
11.536100 -1.534900 2247.020508 2616.0000 648.0000 1621.0000
11.536400 -1.542400 2247.020020 2616.0000 649.0000 1596.0000
11.539200 -1.550100 2247.019775 2616.0000 650.0000 1623.0000
11.534900 -1.557200 2247.019775 2616.0000 651.0000 1536.0000
11.537600 -1.564300 2247.019287 2616.0000 652.0000 1565.0000
11.535500 -1.571300 2247.019287 2616.0000 653.0000 1524.0000
11.536100 -1.578500 2247.019043 2616.0000 654.0000 1512.0000
11.541100 -1.586800 2247.018311 2616.0000 655.0000 1517.0000
11.547100 -1.594500 2247.017822 2616.0000 656.0000 1531.0000
11.549700 -1.602400 2247.017334 2616.0000 657.0000 1495.0000
11.551200 -1.609900 2247.017090 2616.0000 658.0000 1448.0000
11.555800 -1.617500 2247.016602 2616.0000 659.0000 1502.0000
11.565200 -1.626100 2247.015625 2616.0000 660.0000 1473.0000
11.566300 -1.633700 2247.015381 2616.0000 661.0000 1422.0000
11.580700 -1.643100 2247.014160 2616.0000 662.0000 1430.0000
11.593300 -1.652100 2247.013184 2616.0000 663.0000 1450.0000
11.611200 -1.662000 2247.011719 2616.0000 664.0000 1439.0000
11.624400 -1.671000 2247.010498 2616.0000 665.0000 1428.0000
11.650200 -1.682400 2247.008545 2616.0000 666.0000 1386.0000
11.846600 -1.293800 2247.001465 2617.0000 610.0000 1326.0000
11.726800 -1.354800 2247.007080 2617.0000 620.0000 1387.0000
11.684400 -1.357500 2247.009521 2617.0000 621.0000 1388.0000
11.668700 -1.362800 2247.010498 2617.0000 622.0000 1388.0000
11.657900 -1.368400 2247.010986 2617.0000 623.0000 1491.0000
11.641200 -1.373600 2247.011719 2617.0000 624.0000 1557.0000
11.625300 -1.379300 2247.012695 2617.0000 625.0000 1508.0000
11.615700 -1.385600 2247.012939 2617.0000 626.0000 1431.0000
11.605400 -1.391900 2247.013428 2617.0000 627.0000 1512.0000
11.600300 -1.398400 2247.013672 2617.0000 628.0000 1561.0000
11.586900 -1.403700 2247.014160 2617.0000 629.0000 1557.0000
11.576000 -1.409300 2247.014648 2617.0000 630.0000 1461.0000
11.570000 -1.416500 2247.014893 2617.0000 631.0000 1434.0000
11.567500 -1.423600 2247.014893 2617.0000 632.0000 1493.0000
11.565400 -1.430400 2247.014648 2617.0000 633.0000 1635.0000
11.554900 -1.436300 2247.015137 2617.0000 634.0000 1528.0000
11.552700 -1.442700 2247.015137 2617.0000 635.0000 1631.0000
11.550300 -1.449600 2247.015137 2617.0000 636.0000 1538.0000
11.552800 -1.457800 2247.014648 2617.0000 637.0000 1582.0000
11.549000 -1.464200 2247.014648 2617.0000 638.0000 1632.0000
11.545500 -1.471100 2247.014648 2617.0000 639.0000 1567.0000
11.541800 -1.478100 2247.014648 2617.0000 640.0000 1590.0000
11.539000 -1.484300 2247.014648 2617.0000 641.0000 1582.0000
11.539200 -1.491300 2247.014404 2617.0000 642.0000 1557.0000
11.537800 -1.498900 2247.014404 2617.0000 643.0000 1550.0000
11.532500 -1.505200 2247.014404 2617.0000 644.0000 1571.0000
11.537100 -1.513400 2247.013916 2617.0000 645.0000 1572.0000
11.535900 -1.520800 2247.013672 2617.0000 646.0000 1552.0000
11.536200 -1.527600 2247.013428 2617.0000 647.0000 1604.0000
11.535200 -1.534600 2247.013184 2617.0000 648.0000 1532.0000
11.537100 -1.542300 2247.012939 2617.0000 649.0000 1634.0000
11.537200 -1.549700 2247.012695 2617.0000 650.0000 1574.0000
11.535900 -1.557200 2247.012451 2617.0000 651.0000 1519.0000
11.539300 -1.564400 2247.012207 2617.0000 652.0000 1631.0000
11.538000 -1.571500 2247.011963 2617.0000 653.0000 1593.0000
11.539500 -1.578800 2247.011719 2617.0000 654.0000 1527.0000
11.541500 -1.586700 2247.011230 2617.0000 655.0000 1519.0000
11.547500 -1.594500 2247.010498 2617.0000 656.0000 1556.0000
11.551600 -1.602600 2247.010010 2617.0000 657.0000 1503.0000
11.552400 -1.609900 2247.009766 2617.0000 658.0000 1438.0000
11.556400 -1.617400 2247.009277 2617.0000 659.0000 1546.0000
11.566100 -1.626000 2247.008301 2617.0000 660.0000 1506.0000
11.568100 -1.633800 2247.008057 2617.0000 661.0000 1443.0000
11.578700 -1.642700 2247.007080 2617.0000 662.0000 1385.0000
11.592400 -1.651800 2247.006104 2617.0000 663.0000 1436.0000
11.612200 -1.662000 2247.004395 2617.0000 664.0000 1456.0000
11.622300 -1.670600 2247.003418 2617.0000 665.0000 1374.0000
11.640400 -1.680800 2247.001953 2617.0000 666.0000 1372.0000
11.828700 -1.291600 2246.995361 2618.0000 610.0000 1342.0000
11.836800 -1.300200 2246.994629 2618.0000 611.0000 1261.0000
11.746700 -1.349700 2246.998779 2618.0000 619.0000 1363.0000
11.735300 -1.355600 2246.999268 2618.0000 620.0000 1365.0000
11.681100 -1.356900 2247.002686 2618.0000 621.0000 1354.0000
11.668400 -1.362600 2247.003174 2618.0000 622.0000 1460.0000
11.652600 -1.367700 2247.003906 2618.0000 623.0000 1454.0000
11.638000 -1.373000 2247.004883 2618.0000 624.0000 1521.0000
11.623600 -1.378900 2247.005615 2618.0000 625.0000 1520.0000
11.613400 -1.385200 2247.006104 2618.0000 626.0000 1501.0000
11.604700 -1.391700 2247.006348 2618.0000 627.0000 1520.0000
11.601600 -1.398400 2247.006348 2618.0000 628.0000 1568.0000
11.587100 -1.403600 2247.007080 2618.0000 629.0000 1546.0000
11.578600 -1.409400 2247.007324 2618.0000 630.0000 1478.0000
11.569000 -1.416200 2247.007813 2618.0000 631.0000 1442.0000
11.565500 -1.423200 2247.007813 2618.0000 632.0000 1447.0000
11.568400 -1.430600 2247.007324 2618.0000 633.0000 1667.0000
11.555100 -1.436100 2247.008057 2618.0000 634.0000 1553.0000
11.553300 -1.442700 2247.007813 2618.0000 635.0000 1615.0000
11.549500 -1.449400 2247.007813 2618.0000 636.0000 1552.0000
11.552000 -1.457500 2247.007568 2618.0000 637.0000 1661.0000
11.548500 -1.464000 2247.007568 2618.0000 638.0000 1654.0000
11.545800 -1.471000 2247.007568 2618.0000 639.0000 1589.0000
11.541200 -1.477800 2247.007568 2618.0000 640.0000 1587.0000
11.537900 -1.484000 2247.007568 2618.0000 641.0000 1611.0000
11.539500 -1.491200 2247.007324 2618.0000 642.0000 1597.0000
11.537200 -1.498700 2247.007080 2618.0000 643.0000 1505.0000
11.534200 -1.505200 2247.007080 2618.0000 644.0000 1606.0000
11.537200 -1.513300 2247.006592 2618.0000 645.0000 1635.0000
11.535000 -1.520500 2247.006592 2618.0000 646.0000 1547.0000
11.535100 -1.527200 2247.006348 2618.0000 647.0000 1595.0000
11.534800 -1.534400 2247.006104 2618.0000 648.0000 1495.0000
11.535000 -1.541900 2247.005859 2618.0000 649.0000 1596.0000
11.537500 -1.549600 2247.005615 2618.0000 650.0000 1582.0000
11.537000 -1.557200 2247.005371 2618.0000 651.0000 1517.0000
11.540600 -1.564400 2247.004883 2618.0000 652.0000 1577.0000
11.540400 -1.571600 2247.004639 2618.0000 653.0000 1587.0000
11.540400 -1.578700 2247.004395 2618.0000 654.0000 1476.0000
11.543300 -1.586700 2247.003906 2618.0000 655.0000 1497.0000
11.549700 -1.594600 2247.003418 2618.0000 656.0000 1598.0000
11.549700 -1.602100 2247.002930 2618.0000 657.0000 1492.0000
11.554500 -1.610000 2247.002441 2618.0000 658.0000 1494.0000
11.554800 -1.617000 2247.002197 2618.0000 659.0000 1528.0000
11.566300 -1.625900 2247.001221 2618.0000 660.0000 1471.0000
11.567700 -1.633600 2247.000977 2618.0000 661.0000 1446.0000
11.578100 -1.642400 2247.000000 2618.0000 662.0000 1482.0000
11.591400 -1.651500 2246.998779 2618.0000 663.0000 1423.0000
11.607300 -1.661100 2246.997559 2618.0000 664.0000 1465.0000
11.617200 -1.669700 2246.996582 2618.0000 665.0000 1364.0000
11.630300 -1.679200 2246.995605 2618.0000 666.0000 1414.0000
11.794200 -1.287700 2246.990234 2619.0000 610.0000 1312.0000
11.817000 -1.297800 2246.988525 2619.0000 611.0000 1292.0000
11.854400 -1.309500 2246.985840 2619.0000 612.0000 1350.0000
11.735000 -1.348200 2246.992188 2619.0000 619.0000 1299.0000
11.731200 -1.355000 2246.992188 2619.0000 620.0000 1353.0000
11.678400 -1.356400 2246.995605 2619.0000 621.0000 1406.0000
11.665500 -1.362100 2246.996094 2619.0000 622.0000 1481.0000
11.649300 -1.367100 2246.997070 2619.0000 623.0000 1403.0000
11.635200 -1.372600 2246.997803 2619.0000 624.0000 1492.0000
11.621800 -1.378600 2246.998291 2619.0000 625.0000 1487.0000
11.609300 -1.384600 2246.999023 2619.0000 626.0000 1463.0000
11.605500 -1.391600 2246.999023 2619.0000 627.0000 1510.0000
11.599400 -1.398000 2246.999268 2619.0000 628.0000 1543.0000
11.586700 -1.403400 2247.000000 2619.0000 629.0000 1473.0000
11.578900 -1.409300 2247.000244 2619.0000 630.0000 1474.0000
11.569500 -1.416100 2247.000488 2619.0000 631.0000 1476.0000
11.564400 -1.422900 2247.000732 2619.0000 632.0000 1477.0000
11.566100 -1.430200 2247.000244 2619.0000 633.0000 1595.0000
11.553100 -1.435700 2247.000977 2619.0000 634.0000 1521.0000
11.553700 -1.442600 2247.000732 2619.0000 635.0000 1596.0000
11.550800 -1.449400 2247.000732 2619.0000 636.0000 1619.0000
11.550600 -1.457200 2247.000488 2619.0000 637.0000 1633.0000
11.547600 -1.463800 2247.000488 2619.0000 638.0000 1642.0000
11.544700 -1.470700 2247.000488 2619.0000 639.0000 1575.0000
11.540400 -1.477600 2247.000488 2619.0000 640.0000 1594.0000
11.537700 -1.483800 2247.000488 2619.0000 641.0000 1587.0000
11.541000 -1.491200 2247.000000 2619.0000 642.0000 1625.0000
11.538400 -1.498700 2247.000000 2619.0000 643.0000 1551.0000
11.534800 -1.505200 2247.000000 2619.0000 644.0000 1513.0000
11.536300 -1.513000 2246.999512 2619.0000 645.0000 1609.0000
11.533700 -1.520200 2246.999512 2619.0000 646.0000 1582.0000
11.533000 -1.526800 2246.999268 2619.0000 647.0000 1594.0000
11.535400 -1.534300 2246.999023 2619.0000 648.0000 1565.0000
11.535300 -1.541800 2246.998779 2619.0000 649.0000 1576.0000
11.536000 -1.549200 2246.998291 2619.0000 650.0000 1524.0000
11.536000 -1.556900 2246.998291 2619.0000 651.0000 1490.0000
11.540700 -1.564300 2246.997803 2619.0000 652.0000 1501.0000
11.541200 -1.571600 2246.997314 2619.0000 653.0000 1624.0000
11.540700 -1.578600 2246.997314 2619.0000 654.0000 1502.0000
11.544900 -1.586800 2246.996582 2619.0000 655.0000 1536.0000
11.551000 -1.594600 2246.996094 2619.0000 656.0000 1583.0000
11.547700 -1.601700 2246.996094 2619.0000 657.0000 1464.0000
11.552700 -1.609600 2246.995361 2619.0000 658.0000 1479.0000
11.553900 -1.616700 2246.995117 2619.0000 659.0000 1475.0000
11.566000 -1.625700 2246.993896 2619.0000 660.0000 1489.0000
11.569500 -1.633700 2246.993652 2619.0000 661.0000 1497.0000
11.576200 -1.642000 2246.992920 2619.0000 662.0000 1511.0000
11.593600 -1.651600 2246.991455 2619.0000 663.0000 1478.0000
11.604700 -1.660600 2246.990479 2619.0000 664.0000 1515.0000
11.614500 -1.669100 2246.989502 2619.0000 665.0000 1278.0000
11.625100 -1.678300 2246.988525 2619.0000 666.0000 1396.0000
11.789000 -1.294600 2246.983154 2620.0000 611.0000 1332.0000
11.806200 -1.304000 2246.981689 2620.0000 612.0000 1295.0000
11.817400 -1.312800 2246.980713 2620.0000 613.0000 1351.0000
11.723300 -1.346700 2246.985596 2620.0000 619.0000 1343.0000
11.708100 -1.352200 2246.986572 2620.0000 620.0000 1293.0000
11.674500 -1.355800 2246.988525 2620.0000 621.0000 1377.0000
11.659800 -1.361300 2246.989258 2620.0000 622.0000 1411.0000
11.645400 -1.366500 2246.989990 2620.0000 623.0000 1380.0000
11.633000 -1.372100 2246.990723 2620.0000 624.0000 1485.0000
11.620100 -1.378200 2246.991211 2620.0000 625.0000 1471.0000
11.607200 -1.384200 2246.991943 2620.0000 626.0000 1470.0000
11.603900 -1.391300 2246.991943 2620.0000 627.0000 1461.0000
11.597600 -1.397700 2246.992188 2620.0000 628.0000 1541.0000
11.587100 -1.403300 2246.992676 2620.0000 629.0000 1449.0000
11.577000 -1.408900 2246.993164 2620.0000 630.0000 1476.0000
11.569400 -1.415900 2246.993408 2620.0000 631.0000 1477.0000
11.562500 -1.422500 2246.993652 2620.0000 632.0000 1460.0000
11.561600 -1.429500 2246.993408 2620.0000 633.0000 1469.0000
11.558700 -1.436300 2246.993408 2620.0000 634.0000 1581.0000
11.553700 -1.442400 2246.993652 2620.0000 635.0000 1581.0000
11.552000 -1.449400 2246.993408 2620.0000 636.0000 1635.0000
11.550600 -1.457000 2246.993408 2620.0000 637.0000 1636.0000
11.547600 -1.463600 2246.993408 2620.0000 638.0000 1654.0000
11.544400 -1.470500 2246.993408 2620.0000 639.0000 1599.0000
11.540700 -1.477500 2246.993408 2620.0000 640.0000 1624.0000
11.536500 -1.483500 2246.993408 2620.0000 641.0000 1547.0000
11.541800 -1.491200 2246.992920 2620.0000 642.0000 1647.0000
11.538800 -1.498600 2246.992676 2620.0000 643.0000 1556.0000
11.536700 -1.505200 2246.992676 2620.0000 644.0000 1474.0000
11.537000 -1.512900 2246.992432 2620.0000 645.0000 1648.0000
11.535300 -1.520300 2246.992188 2620.0000 646.0000 1619.0000
11.532300 -1.526600 2246.992188 2620.0000 647.0000 1573.0000
11.534400 -1.534000 2246.991943 2620.0000 648.0000 1572.0000
11.538400 -1.542000 2246.991211 2620.0000 649.0000 1616.0000
11.536800 -1.549200 2246.991211 2620.0000 650.0000 1557.0000
11.538000 -1.557000 2246.990967 2620.0000 651.0000 1557.0000
11.541200 -1.564200 2246.990479 2620.0000 652.0000 1520.0000
11.539400 -1.571200 2246.990234 2620.0000 653.0000 1558.0000
11.541000 -1.578500 2246.989990 2620.0000 654.0000 1525.0000
11.545000 -1.586700 2246.989502 2620.0000 655.0000 1502.0000
11.546700 -1.593900 2246.989014 2620.0000 656.0000 1509.0000
11.549200 -1.601700 2246.988770 2620.0000 657.0000 1517.0000
11.554200 -1.609700 2246.988037 2620.0000 658.0000 1552.0000
11.556400 -1.616900 2246.987793 2620.0000 659.0000 1516.0000
11.559500 -1.624600 2246.987305 2620.0000 660.0000 1484.0000
11.570900 -1.633700 2246.986328 2620.0000 661.0000 1474.0000
11.577900 -1.642100 2246.985596 2620.0000 662.0000 1537.0000
11.595100 -1.651700 2246.984131 2620.0000 663.0000 1472.0000
11.600700 -1.659900 2246.983398 2620.0000 664.0000 1424.0000
11.616700 -1.669300 2246.982178 2620.0000 665.0000 1337.0000
11.623100 -1.677800 2246.981445 2620.0000 666.0000 1382.0000
11.771300 -1.284900 2246.977295 2621.0000 610.0000 1338.0000
11.762900 -1.291600 2246.977539 2621.0000 611.0000 1412.0000
11.784900 -1.301500 2246.975830 2621.0000 612.0000 1338.0000
11.797500 -1.310500 2246.974854 2621.0000 613.0000 1291.0000
11.805000 -1.319000 2246.974121 2621.0000 614.0000 1306.0000
11.720000 -1.346200 2246.978760 2621.0000 619.0000 1333.0000
11.695900 -1.350600 2246.979980 2621.0000 620.0000 1331.0000
11.671500 -1.355300 2246.981445 2621.0000 621.0000 1325.0000
11.654700 -1.360500 2246.982422 2621.0000 622.0000 1390.0000
11.643000 -1.366100 2246.982910 2621.0000 623.0000 1442.0000
11.625000 -1.371000 2246.983887 2621.0000 624.0000 1392.0000
11.619700 -1.378000 2246.984131 2621.0000 625.0000 1484.0000
11.608100 -1.384100 2246.984619 2621.0000 626.0000 1445.0000
11.603600 -1.391100 2246.984863 2621.0000 627.0000 1462.0000
11.597200 -1.397500 2246.985107 2621.0000 628.0000 1535.0000
11.588200 -1.403300 2246.985352 2621.0000 629.0000 1462.0000
11.577800 -1.408900 2246.985840 2621.0000 630.0000 1539.0000
11.569400 -1.415800 2246.986084 2621.0000 631.0000 1452.0000
11.562500 -1.422300 2246.986572 2621.0000 632.0000 1460.0000
11.564400 -1.429600 2246.986084 2621.0000 633.0000 1513.0000
11.564300 -1.436800 2246.985840 2621.0000 634.0000 1609.0000
11.554600 -1.442400 2246.986328 2621.0000 635.0000 1595.0000
11.552600 -1.449300 2246.986084 2621.0000 636.0000 1620.0000
11.550700 -1.456900 2246.986084 2621.0000 637.0000 1642.0000
11.546500 -1.463300 2246.986084 2621.0000 638.0000 1636.0000
11.543600 -1.470200 2246.986084 2621.0000 639.0000 1573.0000
11.539200 -1.477100 2246.986084 2621.0000 640.0000 1594.0000
11.536100 -1.483300 2246.986084 2621.0000 641.0000 1548.0000
11.540900 -1.490900 2246.985596 2621.0000 642.0000 1615.0000
11.539300 -1.498500 2246.985596 2621.0000 643.0000 1567.0000
11.536200 -1.505000 2246.985596 2621.0000 644.0000 1483.0000
11.534300 -1.512400 2246.985352 2621.0000 645.0000 1629.0000
11.537100 -1.520300 2246.985107 2621.0000 646.0000 1635.0000
11.535800 -1.526900 2246.984863 2621.0000 647.0000 1646.0000
11.536500 -1.534100 2246.984619 2621.0000 648.0000 1649.0000
11.540300 -1.542100 2246.983887 2621.0000 649.0000 1635.0000
11.538100 -1.549200 2246.983887 2621.0000 650.0000 1612.0000
11.538100 -1.556900 2246.983643 2621.0000 651.0000 1518.0000
11.539900 -1.563900 2246.983398 2621.0000 652.0000 1479.0000
11.539300 -1.571000 2246.983154 2621.0000 653.0000 1553.0000
11.540200 -1.578300 2246.982910 2621.0000 654.0000 1516.0000
11.545100 -1.586500 2246.982422 2621.0000 655.0000 1517.0000
11.544600 -1.593400 2246.982178 2621.0000 656.0000 1518.0000
11.550800 -1.601800 2246.981445 2621.0000 657.0000 1572.0000
11.554300 -1.609500 2246.980957 2621.0000 658.0000 1521.0000
11.554700 -1.616500 2246.980713 2621.0000 659.0000 1436.0000
11.554700 -1.623800 2246.980469 2621.0000 660.0000 1506.0000
11.572000 -1.633700 2246.979004 2621.0000 661.0000 1477.0000
11.580400 -1.642300 2246.978271 2621.0000 662.0000 1493.0000
11.594200 -1.651400 2246.977051 2621.0000 663.0000 1409.0000
11.601500 -1.659800 2246.976318 2621.0000 664.0000 1429.0000
11.615400 -1.668900 2246.975098 2621.0000 665.0000 1367.0000
11.624800 -1.677900 2246.974121 2621.0000 666.0000 1426.0000
11.788200 -1.286600 2246.968750 2622.0000 610.0000 1449.0000
11.767600 -1.291900 2246.969971 2622.0000 611.0000 1381.0000
11.766000 -1.299300 2246.969971 2622.0000 612.0000 1403.0000
11.780400 -1.308400 2246.968506 2622.0000 613.0000 1332.0000
11.782300 -1.316300 2246.968262 2622.0000 614.0000 1331.0000
11.788100 -1.324700 2246.967529 2622.0000 615.0000 1304.0000
11.743700 -1.340900 2246.969971 2622.0000 618.0000 1356.0000
11.716900 -1.345600 2246.971680 2622.0000 619.0000 1367.0000
11.690500 -1.349800 2246.973145 2622.0000 620.0000 1341.0000
11.668500 -1.354800 2246.974609 2622.0000 621.0000 1352.0000
11.652200 -1.360100 2246.975342 2622.0000 622.0000 1390.0000
11.638700 -1.365400 2246.976074 2622.0000 623.0000 1422.0000
11.621900 -1.370500 2246.977051 2622.0000 624.0000 1391.0000
11.619200 -1.377800 2246.977051 2622.0000 625.0000 1511.0000
11.610300 -1.384200 2246.977295 2622.0000 626.0000 1445.0000
11.604400 -1.391000 2246.977539 2622.0000 627.0000 1485.0000
11.596500 -1.397200 2246.977783 2622.0000 628.0000 1529.0000
11.588200 -1.403100 2246.978271 2622.0000 629.0000 1486.0000
11.576100 -1.408500 2246.978760 2622.0000 630.0000 1538.0000
11.573800 -1.416200 2246.978760 2622.0000 631.0000 1550.0000
11.563200 -1.422300 2246.979248 2622.0000 632.0000 1460.0000
11.564400 -1.429500 2246.979004 2622.0000 633.0000 1467.0000
11.565100 -1.436700 2246.978516 2622.0000 634.0000 1597.0000
11.554300 -1.442200 2246.979248 2622.0000 635.0000 1562.0000
11.553800 -1.449300 2246.979004 2622.0000 636.0000 1617.0000
11.549500 -1.456600 2246.979004 2622.0000 637.0000 1598.0000
11.546000 -1.463100 2246.979004 2622.0000 638.0000 1620.0000
11.542200 -1.469900 2246.979004 2622.0000 639.0000 1515.0000
11.538200 -1.476800 2246.979004 2622.0000 640.0000 1603.0000
11.535100 -1.483000 2246.979004 2622.0000 641.0000 1461.0000
11.540700 -1.490700 2246.978516 2622.0000 642.0000 1597.0000
11.537900 -1.498100 2246.978516 2622.0000 643.0000 1509.0000
11.534400 -1.504600 2246.978516 2622.0000 644.0000 1533.0000
11.532100 -1.512000 2246.978516 2622.0000 645.0000 1573.0000
11.538000 -1.520300 2246.977783 2622.0000 646.0000 1671.0000
11.535400 -1.526700 2246.977783 2622.0000 647.0000 1664.0000
11.536000 -1.533900 2246.977295 2622.0000 648.0000 1632.0000
11.539900 -1.541900 2246.976807 2622.0000 649.0000 1594.0000
11.538400 -1.549100 2246.976807 2622.0000 650.0000 1636.0000
11.537500 -1.556600 2246.976563 2622.0000 651.0000 1504.0000
11.539600 -1.563700 2246.976318 2622.0000 652.0000 1524.0000
11.542300 -1.571200 2246.975830 2622.0000 653.0000 1602.0000
11.541700 -1.578300 2246.975586 2622.0000 654.0000 1564.0000
11.544200 -1.586200 2246.975098 2622.0000 655.0000 1541.0000
11.546900 -1.593600 2246.974854 2622.0000 656.0000 1551.0000
11.551200 -1.601700 2246.974121 2622.0000 657.0000 1598.0000
11.556300 -1.609600 2246.973633 2622.0000 658.0000 1573.0000
11.554000 -1.616300 2246.973389 2622.0000 659.0000 1454.0000
11.559900 -1.624400 2246.972900 2622.0000 660.0000 1458.0000
11.572800 -1.633700 2246.971680 2622.0000 661.0000 1555.0000
11.582800 -1.642500 2246.970703 2622.0000 662.0000 1458.0000
11.596100 -1.651500 2246.969482 2622.0000 663.0000 1389.0000
11.605000 -1.660200 2246.968750 2622.0000 664.0000 1376.0000
11.615900 -1.668800 2246.967773 2622.0000 665.0000 1423.0000
11.625700 -1.677900 2246.966797 2622.0000 666.0000 1417.0000
11.784700 -1.286100 2246.961670 2623.0000 610.0000 1452.0000
11.777300 -1.292800 2246.961914 2623.0000 611.0000 1377.0000
11.764300 -1.298900 2246.962646 2623.0000 612.0000 1390.0000
11.768400 -1.306900 2246.962158 2623.0000 613.0000 1404.0000
11.766700 -1.314400 2246.961914 2623.0000 614.0000 1384.0000
11.763400 -1.321700 2246.961914 2623.0000 615.0000 1341.0000
11.765200 -1.329300 2246.961670 2623.0000 616.0000 1301.0000
11.740900 -1.333100 2246.963135 2623.0000 617.0000 1363.0000
11.722900 -1.338300 2246.964111 2623.0000 618.0000 1345.0000
11.707800 -1.344400 2246.965088 2623.0000 619.0000 1394.0000
11.680600 -1.348500 2246.966797 2623.0000 620.0000 1362.0000
11.662300 -1.354000 2246.967773 2623.0000 621.0000 1323.0000
11.649200 -1.359600 2246.968506 2623.0000 622.0000 1352.0000
11.636900 -1.365100 2246.968994 2623.0000 623.0000 1430.0000
11.625800 -1.370800 2246.969482 2623.0000 624.0000 1469.0000
11.617000 -1.377400 2246.969971 2623.0000 625.0000 1501.0000
11.610300 -1.384100 2246.970215 2623.0000 626.0000 1434.0000
11.604300 -1.390800 2246.970215 2623.0000 627.0000 1487.0000
11.592600 -1.396600 2246.970947 2623.0000 628.0000 1439.0000
11.587100 -1.402800 2246.971191 2623.0000 629.0000 1476.0000
11.577300 -1.408500 2246.971680 2623.0000 630.0000 1529.0000
11.575400 -1.416200 2246.971436 2623.0000 631.0000 1586.0000
11.564400 -1.422200 2246.971924 2623.0000 632.0000 1517.0000
11.561400 -1.429000 2246.971924 2623.0000 633.0000 1460.0000
11.565000 -1.436600 2246.971436 2623.0000 634.0000 1614.0000
11.553000 -1.441900 2246.972168 2623.0000 635.0000 1512.0000
11.552400 -1.449000 2246.971924 2623.0000 636.0000 1543.0000
11.549900 -1.456400 2246.971680 2623.0000 637.0000 1600.0000
11.546500 -1.463000 2246.971680 2623.0000 638.0000 1618.0000
11.541100 -1.469600 2246.971924 2623.0000 639.0000 1502.0000
11.537600 -1.476600 2246.971924 2623.0000 640.0000 1538.0000
11.534800 -1.482800 2246.971924 2623.0000 641.0000 1449.0000
11.541600 -1.490700 2246.971191 2623.0000 642.0000 1609.0000
11.536200 -1.497800 2246.971436 2623.0000 643.0000 1481.0000
11.533000 -1.504300 2246.971436 2623.0000 644.0000 1545.0000
11.532900 -1.511900 2246.971191 2623.0000 645.0000 1492.0000
11.537500 -1.520100 2246.970703 2623.0000 646.0000 1649.0000
11.534400 -1.526400 2246.970703 2623.0000 647.0000 1663.0000
11.534800 -1.533600 2246.970215 2623.0000 648.0000 1636.0000
11.539600 -1.541700 2246.969727 2623.0000 649.0000 1566.0000
11.538000 -1.548900 2246.969482 2623.0000 650.0000 1642.0000
11.539900 -1.556800 2246.969238 2623.0000 651.0000 1620.0000
11.541700 -1.563800 2246.968994 2623.0000 652.0000 1629.0000
11.542900 -1.571200 2246.968506 2623.0000 653.0000 1563.0000
11.543600 -1.578400 2246.968262 2623.0000 654.0000 1607.0000
11.545500 -1.586300 2246.968018 2623.0000 655.0000 1578.0000
11.549200 -1.593700 2246.967285 2623.0000 656.0000 1601.0000
11.552600 -1.601700 2246.966797 2623.0000 657.0000 1604.0000
11.557600 -1.609700 2246.966309 2623.0000 658.0000 1549.0000
11.554200 -1.616200 2246.966309 2623.0000 659.0000 1466.0000
11.566800 -1.625200 2246.965088 2623.0000 660.0000 1477.0000
11.575700 -1.633900 2246.964355 2623.0000 661.0000 1593.0000
11.586100 -1.642800 2246.963379 2623.0000 662.0000 1472.0000
11.599600 -1.651900 2246.962158 2623.0000 663.0000 1447.0000
11.609600 -1.660700 2246.961182 2623.0000 664.0000 1428.0000
11.616900 -1.668800 2246.960449 2623.0000 665.0000 1433.0000
11.625000 -1.677600 2246.959717 2623.0000 666.0000 1375.0000
11.780200 -1.285400 2246.954590 2624.0000 610.0000 1425.0000
11.773100 -1.292200 2246.955078 2624.0000 611.0000 1376.0000
11.766600 -1.299000 2246.955078 2624.0000 612.0000 1422.0000
11.761600 -1.306000 2246.955322 2624.0000 613.0000 1447.0000
11.756000 -1.313000 2246.955566 2624.0000 614.0000 1425.0000
11.745400 -1.319600 2246.956055 2624.0000 615.0000 1377.0000
11.739000 -1.326200 2246.956299 2624.0000 616.0000 1350.0000
11.725500 -1.331200 2246.957031 2624.0000 617.0000 1363.0000
11.713500 -1.337100 2246.957520 2624.0000 618.0000 1340.0000
11.696300 -1.343000 2246.958496 2624.0000 619.0000 1376.0000
11.676200 -1.347900 2246.959717 2624.0000 620.0000 1422.0000
11.657400 -1.353200 2246.960693 2624.0000 621.0000 1315.0000
11.645000 -1.358900 2246.961426 2624.0000 622.0000 1344.0000
11.637100 -1.364900 2246.961914 2624.0000 623.0000 1468.0000
11.624900 -1.370600 2246.962402 2624.0000 624.0000 1471.0000
11.613200 -1.376800 2246.962891 2624.0000 625.0000 1434.0000
11.611900 -1.384100 2246.962891 2624.0000 626.0000 1479.0000
11.603700 -1.390600 2246.963135 2624.0000 627.0000 1528.0000
11.592900 -1.396500 2246.963623 2624.0000 628.0000 1477.0000
11.586900 -1.402600 2246.963867 2624.0000 629.0000 1469.0000
11.579300 -1.408600 2246.964111 2624.0000 630.0000 1476.0000
11.571900 -1.415600 2246.964600 2624.0000 631.0000 1504.0000
11.564400 -1.422100 2246.964844 2624.0000 632.0000 1554.0000
11.560100 -1.428600 2246.964844 2624.0000 633.0000 1545.0000
11.564700 -1.436400 2246.964355 2624.0000 634.0000 1615.0000
11.551300 -1.441500 2246.965088 2624.0000 635.0000 1470.0000
11.548300 -1.448300 2246.965088 2624.0000 636.0000 1450.0000
11.548800 -1.456200 2246.964600 2624.0000 637.0000 1564.0000
11.546400 -1.462800 2246.964600 2624.0000 638.0000 1640.0000
11.541700 -1.469500 2246.964844 2624.0000 639.0000 1554.0000
11.536900 -1.476300 2246.964844 2624.0000 640.0000 1469.0000
11.533000 -1.482400 2246.964844 2624.0000 641.0000 1463.0000
11.540900 -1.490400 2246.964111 2624.0000 642.0000 1599.0000
11.534800 -1.497400 2246.964355 2624.0000 643.0000 1465.0000
11.533200 -1.504200 2246.964111 2624.0000 644.0000 1538.0000
11.533000 -1.511800 2246.964111 2624.0000 645.0000 1451.0000
11.534900 -1.519600 2246.963623 2624.0000 646.0000 1575.0000
11.534800 -1.526300 2246.963379 2624.0000 647.0000 1654.0000
11.534600 -1.533400 2246.963135 2624.0000 648.0000 1648.0000
11.539500 -1.541500 2246.962646 2624.0000 649.0000 1536.0000
11.538600 -1.548800 2246.962402 2624.0000 650.0000 1637.0000
11.540800 -1.556700 2246.961914 2624.0000 651.0000 1641.0000
11.540500 -1.563500 2246.961914 2624.0000 652.0000 1554.0000
11.544400 -1.571200 2246.961182 2624.0000 653.0000 1588.0000
11.544700 -1.578400 2246.960938 2624.0000 654.0000 1604.0000
11.545800 -1.586100 2246.960693 2624.0000 655.0000 1559.0000
11.548700 -1.593500 2246.960205 2624.0000 656.0000 1603.0000
11.553200 -1.601700 2246.959717 2624.0000 657.0000 1598.0000
11.558000 -1.609600 2246.958984 2624.0000 658.0000 1494.0000
11.555600 -1.616200 2246.958984 2624.0000 659.0000 1452.0000
11.568500 -1.625300 2246.958008 2624.0000 660.0000 1550.0000
11.578000 -1.634100 2246.957031 2624.0000 661.0000 1548.0000
11.586300 -1.642600 2246.956055 2624.0000 662.0000 1463.0000
11.599600 -1.651700 2246.955078 2624.0000 663.0000 1450.0000
11.611200 -1.660700 2246.953857 2624.0000 664.0000 1445.0000
11.619200 -1.669000 2246.953125 2624.0000 665.0000 1488.0000
11.637200 -1.679200 2246.951660 2624.0000 666.0000 1332.0000
11.777800 -1.285000 2246.947510 2625.0000 610.0000 1457.0000
11.768500 -1.291600 2246.947998 2625.0000 611.0000 1409.0000
11.762700 -1.298500 2246.948242 2625.0000 612.0000 1416.0000
11.755100 -1.305100 2246.948486 2625.0000 613.0000 1404.0000
11.751600 -1.312400 2246.948486 2625.0000 614.0000 1481.0000
11.732400 -1.318000 2246.949707 2625.0000 615.0000 1377.0000
11.724300 -1.324400 2246.949951 2625.0000 616.0000 1323.0000
11.717500 -1.330200 2246.950195 2625.0000 617.0000 1358.0000
11.703000 -1.335700 2246.951172 2625.0000 618.0000 1331.0000
11.683700 -1.341400 2246.952148 2625.0000 619.0000 1355.0000
11.672500 -1.347300 2246.952637 2625.0000 620.0000 1407.0000
11.654600 -1.352700 2246.953857 2625.0000 621.0000 1355.0000
11.642000 -1.358400 2246.954346 2625.0000 622.0000 1351.0000
11.631300 -1.364100 2246.955078 2625.0000 623.0000 1401.0000
11.623700 -1.370300 2246.955322 2625.0000 624.0000 1496.0000
11.614100 -1.376700 2246.955811 2625.0000 625.0000 1473.0000
11.609900 -1.383700 2246.955811 2625.0000 626.0000 1483.0000
11.600800 -1.390100 2246.956299 2625.0000 627.0000 1534.0000
11.591900 -1.396200 2246.956543 2625.0000 628.0000 1509.0000
11.585900 -1.402400 2246.956787 2625.0000 629.0000 1470.0000
11.577000 -1.408200 2246.957275 2625.0000 630.0000 1451.0000
11.570200 -1.415300 2246.957520 2625.0000 631.0000 1502.0000
11.563600 -1.421800 2246.957764 2625.0000 632.0000 1560.0000
11.558200 -1.428300 2246.957764 2625.0000 633.0000 1563.0000
11.561100 -1.435800 2246.957520 2625.0000 634.0000 1534.0000
11.551200 -1.441300 2246.958008 2625.0000 635.0000 1469.0000
11.547000 -1.448000 2246.958008 2625.0000 636.0000 1488.0000
11.546100 -1.455700 2246.957764 2625.0000 637.0000 1507.0000
11.545500 -1.462600 2246.957520 2625.0000 638.0000 1633.0000
11.541200 -1.469300 2246.957520 2625.0000 639.0000 1553.0000
11.535400 -1.476000 2246.957764 2625.0000 640.0000 1414.0000
11.532400 -1.482200 2246.957764 2625.0000 641.0000 1543.0000
11.537600 -1.489800 2246.957275 2625.0000 642.0000 1525.0000
11.535900 -1.497400 2246.957031 2625.0000 643.0000 1487.0000
11.532700 -1.503900 2246.957031 2625.0000 644.0000 1481.0000
11.531900 -1.511500 2246.956787 2625.0000 645.0000 1469.0000
11.534600 -1.519400 2246.956543 2625.0000 646.0000 1596.0000
11.534700 -1.526100 2246.956299 2625.0000 647.0000 1643.0000
11.534000 -1.533200 2246.956055 2625.0000 648.0000 1618.0000
11.537200 -1.541100 2246.955566 2625.0000 649.0000 1474.0000
11.538000 -1.548600 2246.955322 2625.0000 650.0000 1563.0000
11.539500 -1.556400 2246.954834 2625.0000 651.0000 1596.0000
11.541900 -1.563500 2246.954590 2625.0000 652.0000 1606.0000
11.543900 -1.571000 2246.954102 2625.0000 653.0000 1548.0000
11.545600 -1.578400 2246.953857 2625.0000 654.0000 1557.0000
11.545300 -1.585900 2246.953613 2625.0000 655.0000 1560.0000
11.548400 -1.593300 2246.953125 2625.0000 656.0000 1589.0000
11.550800 -1.601200 2246.952637 2625.0000 657.0000 1577.0000
11.560000 -1.609700 2246.951904 2625.0000 658.0000 1535.0000
11.559800 -1.616600 2246.951660 2625.0000 659.0000 1454.0000
11.568200 -1.625100 2246.950684 2625.0000 660.0000 1528.0000
11.578300 -1.634000 2246.949707 2625.0000 661.0000 1549.0000
11.586900 -1.642600 2246.948975 2625.0000 662.0000 1531.0000
11.595600 -1.651000 2246.947998 2625.0000 663.0000 1489.0000
11.613300 -1.660900 2246.946533 2625.0000 664.0000 1479.0000
11.623100 -1.669400 2246.945557 2625.0000 665.0000 1473.0000
11.772900 -1.284300 2246.940674 2626.0000 610.0000 1439.0000
11.766400 -1.291200 2246.940918 2626.0000 611.0000 1471.0000
11.758400 -1.297800 2246.941162 2626.0000 612.0000 1402.0000
11.752600 -1.304700 2246.941406 2626.0000 613.0000 1393.0000
11.743900 -1.311400 2246.941895 2626.0000 614.0000 1389.0000
11.731500 -1.317700 2246.942383 2626.0000 615.0000 1364.0000
11.722400 -1.324000 2246.942871 2626.0000 616.0000 1390.0000
11.710300 -1.329200 2246.943604 2626.0000 617.0000 1353.0000
11.691900 -1.334300 2246.944580 2626.0000 618.0000 1355.0000
11.676400 -1.340400 2246.945313 2626.0000 619.0000 1371.0000
11.666600 -1.346500 2246.945801 2626.0000 620.0000 1361.0000
11.650900 -1.352200 2246.946777 2626.0000 621.0000 1330.0000
11.641100 -1.358200 2246.947266 2626.0000 622.0000 1482.0000
11.627200 -1.363400 2246.947998 2626.0000 623.0000 1440.0000
11.622900 -1.370000 2246.947998 2626.0000 624.0000 1532.0000
11.612700 -1.376400 2246.948486 2626.0000 625.0000 1487.0000
11.604500 -1.382900 2246.948975 2626.0000 626.0000 1385.0000
11.598700 -1.389700 2246.949219 2626.0000 627.0000 1518.0000
11.591300 -1.396000 2246.949463 2626.0000 628.0000 1540.0000
11.584100 -1.402000 2246.949707 2626.0000 629.0000 1480.0000
11.574800 -1.407700 2246.950195 2626.0000 630.0000 1488.0000
11.569600 -1.415000 2246.950195 2626.0000 631.0000 1521.0000
11.562100 -1.421500 2246.950684 2626.0000 632.0000 1565.0000
11.556300 -1.427900 2246.950684 2626.0000 633.0000 1560.0000
11.555800 -1.435000 2246.950684 2626.0000 634.0000 1452.0000
11.552100 -1.441300 2246.950684 2626.0000 635.0000 1469.0000
11.547300 -1.447800 2246.950684 2626.0000 636.0000 1507.0000
11.543500 -1.455200 2246.950684 2626.0000 637.0000 1457.0000
11.542600 -1.462000 2246.950684 2626.0000 638.0000 1580.0000
11.537900 -1.468700 2246.950684 2626.0000 639.0000 1499.0000
11.536200 -1.475900 2246.950684 2626.0000 640.0000 1485.0000
11.529900 -1.481700 2246.950684 2626.0000 641.0000 1478.0000
11.534800 -1.489300 2246.950195 2626.0000 642.0000 1463.0000
11.535000 -1.497100 2246.949951 2626.0000 643.0000 1482.0000
11.531700 -1.503700 2246.949951 2626.0000 644.0000 1446.0000
11.532100 -1.511300 2246.949707 2626.0000 645.0000 1563.0000
11.533200 -1.519000 2246.949463 2626.0000 646.0000 1526.0000
11.534200 -1.525900 2246.949219 2626.0000 647.0000 1606.0000
11.534000 -1.533000 2246.948975 2626.0000 648.0000 1643.0000
11.536100 -1.540800 2246.948486 2626.0000 649.0000 1545.0000
11.537600 -1.548300 2246.947998 2626.0000 650.0000 1526.0000
11.537500 -1.556000 2246.947998 2626.0000 651.0000 1511.0000
11.540600 -1.563200 2246.947510 2626.0000 652.0000 1578.0000
11.542300 -1.570600 2246.947021 2626.0000 653.0000 1512.0000
11.543600 -1.577900 2246.946777 2626.0000 654.0000 1496.0000
11.545500 -1.585800 2246.946289 2626.0000 655.0000 1582.0000
11.548000 -1.593100 2246.946045 2626.0000 656.0000 1578.0000
11.548700 -1.600700 2246.945801 2626.0000 657.0000 1584.0000
11.561600 -1.609700 2246.944580 2626.0000 658.0000 1585.0000
11.563000 -1.616900 2246.944092 2626.0000 659.0000 1474.0000
11.567700 -1.624800 2246.943604 2626.0000 660.0000 1491.0000
11.578000 -1.633800 2246.942627 2626.0000 661.0000 1541.0000
11.588800 -1.642700 2246.941406 2626.0000 662.0000 1539.0000
11.593200 -1.650500 2246.940918 2626.0000 663.0000 1501.0000
11.617300 -1.661300 2246.938965 2626.0000 664.0000 1498.0000
11.627000 -1.669800 2246.937988 2626.0000 665.0000 1434.0000
11.767400 -1.283500 2246.933838 2627.0000 610.0000 1417.0000
11.763200 -1.290700 2246.933838 2627.0000 611.0000 1447.0000
11.756300 -1.297400 2246.934082 2627.0000 612.0000 1423.0000
11.749100 -1.304200 2246.934326 2627.0000 613.0000 1377.0000
11.738400 -1.310600 2246.934814 2627.0000 614.0000 1326.0000
11.728800 -1.317200 2246.935303 2627.0000 615.0000 1337.0000
11.717200 -1.323300 2246.935791 2627.0000 616.0000 1409.0000
11.701800 -1.328100 2246.936768 2627.0000 617.0000 1358.0000
11.685200 -1.333400 2246.937744 2627.0000 618.0000 1369.0000
11.671200 -1.339600 2246.938721 2627.0000 619.0000 1383.0000
11.662700 -1.345900 2246.938965 2627.0000 620.0000 1396.0000
11.648800 -1.351800 2246.939697 2627.0000 621.0000 1392.0000
11.636100 -1.357400 2246.940430 2627.0000 622.0000 1394.0000
11.628200 -1.363400 2246.940918 2627.0000 623.0000 1478.0000
11.617200 -1.369200 2246.941406 2627.0000 624.0000 1434.0000
11.610400 -1.376000 2246.941650 2627.0000 625.0000 1489.0000
11.603900 -1.382700 2246.941895 2627.0000 626.0000 1461.0000
11.597700 -1.389400 2246.941895 2627.0000 627.0000 1543.0000
11.591100 -1.395800 2246.942383 2627.0000 628.0000 1577.0000
11.581400 -1.401500 2246.942627 2627.0000 629.0000 1440.0000
11.573200 -1.407400 2246.943115 2627.0000 630.0000 1475.0000
11.570900 -1.415000 2246.943115 2627.0000 631.0000 1581.0000
11.562000 -1.421300 2246.943359 2627.0000 632.0000 1573.0000
11.557500 -1.427900 2246.943604 2627.0000 633.0000 1561.0000
11.555000 -1.434700 2246.943604 2627.0000 634.0000 1439.0000
11.554700 -1.441400 2246.943359 2627.0000 635.0000 1532.0000
11.547200 -1.447700 2246.943604 2627.0000 636.0000 1480.0000
11.543500 -1.455000 2246.943604 2627.0000 637.0000 1499.0000
11.542000 -1.461800 2246.943604 2627.0000 638.0000 1589.0000
11.536300 -1.468400 2246.943604 2627.0000 639.0000 1480.0000
11.532900 -1.475400 2246.943604 2627.0000 640.0000 1499.0000
11.531600 -1.481800 2246.943604 2627.0000 641.0000 1524.0000
11.531800 -1.488800 2246.943359 2627.0000 642.0000 1465.0000
11.531600 -1.496500 2246.943115 2627.0000 643.0000 1451.0000
11.531100 -1.503400 2246.942871 2627.0000 644.0000 1447.0000
11.533300 -1.511300 2246.942383 2627.0000 645.0000 1636.0000
11.532700 -1.518800 2246.942383 2627.0000 646.0000 1543.0000
11.534700 -1.525800 2246.941895 2627.0000 647.0000 1607.0000
11.534100 -1.532900 2246.941650 2627.0000 648.0000 1633.0000
11.534200 -1.540400 2246.941406 2627.0000 649.0000 1573.0000
11.537200 -1.548100 2246.940918 2627.0000 650.0000 1548.0000
11.534800 -1.555500 2246.940918 2627.0000 651.0000 1476.0000
11.537000 -1.562500 2246.940430 2627.0000 652.0000 1513.0000
11.541700 -1.570400 2246.939941 2627.0000 653.0000 1448.0000
11.544300 -1.577900 2246.939453 2627.0000 654.0000 1561.0000
11.546200 -1.585700 2246.939209 2627.0000 655.0000 1564.0000
11.548500 -1.593000 2246.938721 2627.0000 656.0000 1540.0000
11.549800 -1.600700 2246.938477 2627.0000 657.0000 1591.0000
11.561100 -1.609500 2246.937256 2627.0000 658.0000 1540.0000
11.563800 -1.616900 2246.937012 2627.0000 659.0000 1451.0000
11.568400 -1.624800 2246.936279 2627.0000 660.0000 1510.0000
11.580500 -1.634000 2246.935303 2627.0000 661.0000 1593.0000
11.590100 -1.642700 2246.934082 2627.0000 662.0000 1532.0000
11.593800 -1.650400 2246.933594 2627.0000 663.0000 1439.0000
11.618800 -1.661300 2246.931641 2627.0000 664.0000 1457.0000
11.629800 -1.670000 2246.930664 2627.0000 665.0000 1400.0000
11.763600 -1.283000 2246.926758 2628.0000 610.0000 1422.0000
11.759700 -1.290100 2246.926758 2628.0000 611.0000 1427.0000
11.754700 -1.297100 2246.927002 2628.0000 612.0000 1407.0000
11.747600 -1.303800 2246.927246 2628.0000 613.0000 1411.0000
11.735800 -1.310100 2246.927734 2628.0000 614.0000 1333.0000
11.720800 -1.316200 2246.928711 2628.0000 615.0000 1346.0000
11.713400 -1.322700 2246.928955 2628.0000 616.0000 1469.0000
11.697200 -1.327400 2246.929932 2628.0000 617.0000 1415.0000
11.682400 -1.332900 2246.930908 2628.0000 618.0000 1389.0000
11.668100 -1.339100 2246.931641 2628.0000 619.0000 1366.0000
11.659400 -1.345300 2246.931885 2628.0000 620.0000 1374.0000
11.644400 -1.351100 2246.932861 2628.0000 621.0000 1349.0000
11.633600 -1.357000 2246.933350 2628.0000 622.0000 1357.0000
11.627600 -1.363200 2246.933594 2628.0000 623.0000 1483.0000
11.614500 -1.368700 2246.934326 2628.0000 624.0000 1451.0000
11.607800 -1.375500 2246.934570 2628.0000 625.0000 1467.0000
11.601000 -1.382200 2246.934814 2628.0000 626.0000 1456.0000
11.595300 -1.389000 2246.935059 2628.0000 627.0000 1553.0000
11.590300 -1.395500 2246.935059 2628.0000 628.0000 1590.0000
11.580500 -1.401200 2246.935547 2628.0000 629.0000 1436.0000
11.572000 -1.407100 2246.936035 2628.0000 630.0000 1461.0000
11.570400 -1.414800 2246.935791 2628.0000 631.0000 1590.0000
11.562200 -1.421200 2246.936279 2628.0000 632.0000 1575.0000
11.555900 -1.427500 2246.936523 2628.0000 633.0000 1454.0000
11.557700 -1.434900 2246.936035 2628.0000 634.0000 1521.0000
11.554200 -1.441200 2246.936035 2628.0000 635.0000 1504.0000
11.546300 -1.447400 2246.936523 2628.0000 636.0000 1460.0000
11.542200 -1.454700 2246.936523 2628.0000 637.0000 1473.0000
11.542000 -1.461600 2246.936279 2628.0000 638.0000 1599.0000
11.538100 -1.468400 2246.936279 2628.0000 639.0000 1552.0000
11.533600 -1.475300 2246.936279 2628.0000 640.0000 1538.0000
11.535900 -1.482200 2246.936035 2628.0000 641.0000 1578.0000
11.530900 -1.488500 2246.936279 2628.0000 642.0000 1490.0000
11.530400 -1.496200 2246.936035 2628.0000 643.0000 1401.0000
11.529200 -1.503000 2246.935791 2628.0000 644.0000 1407.0000
11.532400 -1.511100 2246.935303 2628.0000 645.0000 1552.0000
11.533600 -1.518800 2246.935059 2628.0000 646.0000 1634.0000
11.533600 -1.525500 2246.934814 2628.0000 647.0000 1595.0000
11.534700 -1.532800 2246.934570 2628.0000 648.0000 1623.0000
11.532400 -1.540000 2246.934326 2628.0000 649.0000 1581.0000
11.533200 -1.547400 2246.934082 2628.0000 650.0000 1520.0000
11.534000 -1.555200 2246.933838 2628.0000 651.0000 1530.0000
11.535700 -1.562200 2246.933350 2628.0000 652.0000 1528.0000
11.542000 -1.570300 2246.932861 2628.0000 653.0000 1457.0000
11.545100 -1.577800 2246.932373 2628.0000 654.0000 1586.0000
11.546900 -1.585700 2246.931885 2628.0000 655.0000 1576.0000
11.548500 -1.592800 2246.931641 2628.0000 656.0000 1509.0000
11.551600 -1.600800 2246.931152 2628.0000 657.0000 1553.0000
11.560800 -1.609300 2246.930176 2628.0000 658.0000 1520.0000
11.564900 -1.616900 2246.929688 2628.0000 659.0000 1444.0000
11.569400 -1.624800 2246.928955 2628.0000 660.0000 1471.0000
11.582300 -1.634000 2246.927979 2628.0000 661.0000 1627.0000
11.589600 -1.642500 2246.927002 2628.0000 662.0000 1517.0000
11.597300 -1.650700 2246.926270 2628.0000 663.0000 1447.0000
11.619800 -1.661300 2246.924316 2628.0000 664.0000 1490.0000
11.634200 -1.670500 2246.923096 2628.0000 665.0000 1393.0000
11.764000 -1.282900 2246.919434 2629.0000 610.0000 1415.0000
11.759300 -1.289900 2246.919434 2629.0000 611.0000 1459.0000
11.754200 -1.296900 2246.919678 2629.0000 612.0000 1427.0000
11.744500 -1.303300 2246.920166 2629.0000 613.0000 1390.0000
11.731200 -1.309500 2246.920898 2629.0000 614.0000 1349.0000
11.716800 -1.315600 2246.921631 2629.0000 615.0000 1375.0000
11.710200 -1.322200 2246.921875 2629.0000 616.0000 1431.0000
11.695000 -1.327000 2246.922852 2629.0000 617.0000 1406.0000
11.680100 -1.332500 2246.923584 2629.0000 618.0000 1366.0000
11.664300 -1.338500 2246.924561 2629.0000 619.0000 1346.0000
11.657700 -1.345000 2246.924805 2629.0000 620.0000 1342.0000
11.642800 -1.350800 2246.925781 2629.0000 621.0000 1355.0000
11.632800 -1.356700 2246.926270 2629.0000 622.0000 1380.0000
11.624200 -1.362600 2246.926514 2629.0000 623.0000 1447.0000
11.615400 -1.368700 2246.927002 2629.0000 624.0000 1527.0000
11.607000 -1.375200 2246.927490 2629.0000 625.0000 1503.0000
11.598500 -1.381700 2246.927734 2629.0000 626.0000 1447.0000
11.595000 -1.388800 2246.927734 2629.0000 627.0000 1565.0000
11.588000 -1.395100 2246.927979 2629.0000 628.0000 1560.0000
11.574700 -1.400400 2246.928955 2629.0000 629.0000 1446.0000
11.570900 -1.406800 2246.928955 2629.0000 630.0000 1516.0000
11.568900 -1.414500 2246.928711 2629.0000 631.0000 1584.0000
11.562200 -1.421000 2246.929199 2629.0000 632.0000 1595.0000
11.554200 -1.427100 2246.929443 2629.0000 633.0000 1497.0000
11.561000 -1.435100 2246.928711 2629.0000 634.0000 1613.0000
11.552300 -1.440800 2246.929199 2629.0000 635.0000 1459.0000
11.547100 -1.447400 2246.929199 2629.0000 636.0000 1524.0000
11.542300 -1.454600 2246.929443 2629.0000 637.0000 1529.0000
11.541500 -1.461400 2246.929199 2629.0000 638.0000 1641.0000
11.536300 -1.468000 2246.929199 2629.0000 639.0000 1544.0000
11.534100 -1.475200 2246.929199 2629.0000 640.0000 1540.0000
11.540300 -1.482600 2246.928711 2629.0000 641.0000 1661.0000
11.530700 -1.488300 2246.929199 2629.0000 642.0000 1487.0000
11.528700 -1.495900 2246.928955 2629.0000 643.0000 1379.0000
11.528300 -1.502700 2246.928711 2629.0000 644.0000 1435.0000
11.530300 -1.510600 2246.928467 2629.0000 645.0000 1497.0000
11.531400 -1.518300 2246.927979 2629.0000 646.0000 1557.0000
11.532000 -1.525100 2246.927734 2629.0000 647.0000 1563.0000
11.531500 -1.532200 2246.927490 2629.0000 648.0000 1512.0000
11.530900 -1.539600 2246.927490 2629.0000 649.0000 1628.0000
11.531700 -1.547100 2246.927002 2629.0000 650.0000 1527.0000
11.533000 -1.554900 2246.926758 2629.0000 651.0000 1476.0000
11.537700 -1.562300 2246.926025 2629.0000 652.0000 1548.0000
11.542500 -1.570200 2246.925537 2629.0000 653.0000 1530.0000
11.545100 -1.577700 2246.925049 2629.0000 654.0000 1604.0000
11.546900 -1.585500 2246.924805 2629.0000 655.0000 1596.0000
11.547400 -1.592500 2246.924316 2629.0000 656.0000 1534.0000
